# lucy/pcl
VERSION 0.7
FIELDS x y z
SIZE 4 4 4
TYPE F F F
COUNT 1 1 1
WIDTH 1645
HEIGHT 1
VIEWPOINT 0 0 0 1 0 0 0
POINTS 1645
DATA ascii
567.9963 15.5647 231.2443 
815.0519 -24.78563 135.6153 
721.0695 38.51511 134.1465 
490.1107 -108.8732 191.1287 
490.0562 -117.2908 208.0927 
714.3935 48.05463 115.1416 
757.1235 18.15489 38.65154 
539.1997 -77.66766 191.3369 
540.4075 -58.58869 206.4901 
847.7566 -290.5992 -327.6675 
875.5245 -239.8036 -603.1503 
864.9589 -209.2932 -202.3275 
824.63 -50.15515 315.8984 
482.4239 -92.7114 529.6082 
702.7722 -91.45267 376.1909 
514.4847 -231.405 495.5484 
643.3179 26.73064 549.1241 
548.7181 -11.75633 471.2112 
553.7437 -69.30848 566.0787 
611.2953 -169.8725 104.5372 
769.8781 8.402267 403.9212 
767.9835 -32.04617 355.818 
631.2938 -236.1002 0.5674943 
520.7523 -54.23872 533.04 
572.838 -173.538 74.00878 
703.5067 -167.6806 154.6887 
865.849 -218.675 -195.1577 
600.9573 -194.5447 56.38963 
833.3199 -230.856 -219.9093 
576.5827 -129.7222 0.3914114 
740.5513 -147.4056 214.2663 
621.1226 -188.3882 58.94394 
630.1967 -223.9877 20.80463 
798.8123 -102.4779 230.452 
582.2589 -152.487 33.3919 
662.4243 16.52184 596.983 
834.8397 -201.3649 -173.1273 
572.9206 10.33204 500.3143 
855.7314 -203.2649 -190.7948 
741.4188 60.64537 327.3827 
777.4434 -24.76005 366.0325 
834.3169 -220.923 -231.8209 
604.7817 2.436244 564.2377 
688.1385 -168.1804 177.2019 
661.1172 34.77835 538.4218 
601.9026 -217.435 -0.6401847 
525.4867 -38.22395 591.5099 
856.1165 -219.966 -212.6404 
527.2131 -82.66878 554.9348 
564.9723 -101.1474 -0.1476442 
603.6736 19.15724 539.6655 
756.9499 50.77858 423.5187 
678.4766 -257.2485 38.52663 
757.6273 -135.3229 226.6009 
796.3732 -59.03536 339.7984 
561.9158 -148.2944 42.41383 
657.8216 -220.0316 58.94154 
522.4781 -174.4113 115.5896 
588.2048 -72.43072 567.7553 
584.7008 -139.4181 56.54648 
766.3512 19.484 383.3457 
660.7736 82.23621 346.581 
567.5136 1.751272 517.9199 
839.2247 -180.9103 -191.4871 
854.9496 -239.2025 -231.3803 
544.6675 -23.30826 597.5465 
856.6387 -184.6449 -170.0391 
797.3284 -3.608733 443.2138 
545.6351 -86.18739 539.5965 
583.8896 17.44775 520.1479 
496.4741 -234.462 526.5026 
761.6948 36.33243 441.9811 
644.6208 -227.3008 40.33246 
625.2971 -196.8402 40.18675 
761.6087 -66.75233 311.8281 
547.1213 -167.5594 1.195324 
780.2239 -2.304799 385.2081 
511.4158 -222.8899 519.3406 
543.719 -48.54892 583.9533 
564.8369 -59.67749 575.8585 
558.5201 -169.7034 65.24184 
718.933 -157.4466 210.3354 
568.7466 -118.1683 19.11157 
528.1461 -124.0079 57.91322 
755.7646 -99.82146 268.4272 
649.8642 8.610121 576.0482 
634.2631 -205.6964 18.86913 
868.4157 -242.3943 -170.1933 
586.3275 -61.65806 593.8451 
641.4047 -3.380063 596.7485 
534.5219 -10.77869 487.7849 
585.6495 -94.62151 16.83814 
796.9727 -22.32931 306.6091 
774.4494 -43.52556 347.9578 
815.1031 -9.762537 423.3732 
523.7115 -163.5168 25.77497 
643.4831 71.71327 364.6738 
739.142 -160.2087 192.9573 
657.9459 -239.1193 38.34877 
582.5688 -196.769 76.03554 
813.9354 -114.1382 226.4308 
623.7785 13.89593 555.8308 
873.2772 -253.892 -153.0364 
811.6845 -97.80219 248.3088 
582.2847 -183.2935 97.00432 
626.0182 71.83647 306.7584 
632.9644 -151.6544 -160.8638 
593.1116 7.740758 -545.8705 
587.7309 -111.5262 -29.13667 
575.0685 -130.5313 -10.69407 
592.4164 -10.26526 -525.7805 
690.4346 -268.7255 -56.67659 
595.0307 -16.80424 -513.2318 
633.0678 -137.7518 -141.9183 
570.3014 -25.50247 -561.5659 
803.8215 -270.8459 -124.7864 
672.6268 -291.0305 -22.96747 
802.3958 -251.3653 -100.4686 
539.7939 -59.3756 -571.3765 
633.5092 -328.8373 -165.4107 
631.8784 -240.2685 -18.99083 
767.275 -287.0532 -156.3083 
575.4263 -34.56337 -549.2563 
602.6723 -329.0029 -211.9702 
571.1824 -136.0852 -57.14816 
567.1609 -106.5055 -17.83818 
809.3043 -291.8931 -159.1074 
585.0085 -198.3314 -96.57386 
597.8167 20.96696 -556.7087 
825.2543 -226.8537 -225.2285 
685.53 -279.617 -77.16204 
579.109 -146.3627 -75.35233 
887.878 -59.9006 305.3408 
810.8938 -133.5516 -314.8091 
829.9805 -11.46569 422.6296 
661.6235 -3.753863 -602.9255 
836.9112 -43.50105 308.1427 
621.4842 -219.6428 -38.28097 
566.8323 -206.4633 -114.9391 
570.9752 -316.861 -231.9301 
762.3418 -294.7351 -99.47227 
642.4022 -293.5975 -288.6525 
584.2106 -82.26164 -602.4695 
600.6556 -59.99958 -478.4556 
655.4598 -248.1191 -56.6892 
660.0908 62.36493 -575.8352 
874.2874 -84.07015 308.0457 
682.2763 67.79627 -578.7776 
525.7581 -81.4299 -572.902 
600.0684 -191.7037 -82.33236 
692.0137 -256.2113 -74.45729 
799.9117 -159.1646 -306.5913 
635.2554 -227.2676 -55.14661 
622.884 -125.1182 -133.1088 
771.529 -294.5734 -114.1091 
607.7375 -118.36 -153.6987 
854.7018 -37.78012 327.6036 
603.3455 -102.9301 -134.8637 
823.5145 -198.4675 -175.2473 
539.2093 -80.35345 -554.0665 
722.2933 -37.74211 -417.3178 
622.4049 -315.5389 -250.7635 
622.6999 35.52887 -601.3472 
640.7299 -240.9816 -76.36995 
813.4633 -259.2708 -116.2559 
591.8149 -157.6581 -57.08463 
738.886 74.69356 -597.2936 
581.4009 -216.5936 -154.8833 
788.3398 -143.3245 -286.3531 
772.5782 -278.8184 -134.5579 
739.0659 -26.18635 -427.4516 
604.1072 -222.7368 -18.07991 
511.9677 -100.7613 -580.0128 
585.3174 -279.6463 -173.1355 
603.653 -318.5019 -268.1509 
582.6695 -259.0115 -191.7018 
568.0499 -219.5155 -133.6228 
796.871 -4.369416 -462.1269 
859.6277 -61.44704 349.3787 
544.241 -41.10829 -598.9465 
602.8058 -180.2725 -58.48303 
662.2778 -293.7446 -306.4024 
623.2703 -138.9577 -115.7986 
700.2956 68.27892 -558.3226 
607.0384 -135.4266 -97.38584 
874.9657 -62.3263 326.2739 
564.8916 -61.44815 -602.2255 
567.0986 -120.1403 -37.64866 
641.6414 15.74149 -601.7341 
781.9751 -122.8011 -289.8076 
595.7953 -168.0956 -115.4478 
557.6161 -37.12949 -570.1608 
760.5916 -90.7765 -346.6098 
568.7809 -299.8249 -212.4949 
760.9188 -105.3629 -290.0332 
774.6948 -102.3042 -307.6508 
841.903 -59.1257 370.907 
737.597 -49.59592 -411.7319 
849.0605 -82.1136 362.5439 
600.6457 -253.2509 -289.3669 
860.5152 -31.48654 305.8704 
865.5948 -51.44557 337.8866 
783.9019 -135.8592 -269.9301 
583.7919 -238.3074 -134.2232 
642.7178 50.53773 -557.3839 
796.5356 -85.88598 -384.0945 
711.895 -22.71983 -401.5219 
599.7855 -234.7508 -39.72869 
744.9947 -104.6047 -192.884 
663.1738 -285.1303 -250.5356 
609.5259 51.13322 -594.9613 
582.3368 -322.8883 -210.5911 
625.3781 -305.1436 -271.0541 
677.2488 -63.07541 -403.4191 
614.1142 -191.5172 -105.4758 
690.6339 -249.8827 -115.6446 
614.1385 24.49288 -529.2739 
788.1538 -131.7413 -182.0454 
576.0601 -190.6818 -66.42721 
706.8943 -33.64694 -320.7552 
535.0151 -293.8238 -295.5959 
772.3865 -270.3781 -27.28765 
553.2033 -69.23287 -546.9023 
689.3898 65.87572 -547.6626 
785.6181 -267.0958 -33.46617 
728.2606 -270.8522 -161.6669 
710.4025 -9.718211 -428.8214 
727.6572 -76.31544 -352.4379 
636.1257 -246.9895 -107.819 
614.7711 -133.3026 -84.22694 
772.1578 -291.3703 -81.98784 
804.9034 -74.14552 -414.184 
556.7496 -270.4107 -299.2877 
595.254 3.216329 -532.8492 
573.4123 -211.7216 -27.26997 
591.441 -251.6023 -307.4411 
590.9023 -189.0272 -71.71181 
729.9242 -68.49512 -340.272 
715.387 28.80168 -468.1978 
594.6978 -249.4344 -157.1284 
787.715 -259.8443 -49.65057 
787.3621 -112.4595 -226.9261 
855.2766 -61.19588 387.8403 
554.7421 -268.2821 -265.5808 
829.8473 -22.64392 442.6143 
594.8824 -165.6405 -75.31769 
584.6791 -1.960498 -558.02 
591.832 -329.0722 -233.5441 
563.7699 -187.8873 -58.02623 
765.9432 -271.3357 -41.39002 
732.4995 -266.5985 -147.7847 
591.3941 29.15843 -592.9119 
550.4937 -196.2342 -20.52074 
834.6721 -135.3504 173.3205 
639.8994 19.36987 -478.9454 
625.3423 -324.3212 -212.2162 
706.1368 2.120454 -440.1187 
714.1039 -27.75664 -367.1409 
641.1954 -317.9134 -192.1608 
589.124 -63.20779 -500.7475 
752.2632 -98.40607 -173.1758 
596.6809 -329.6092 -243.8437 
868.0386 -49.69979 390.0869 
873.567 -102.2398 171.1105 
562.2842 -299.1838 -249.4031 
602.4838 -103.1963 -19.34579 
718.7861 -43.44129 -384.9146 
865.6458 -70.77029 435.879 
567.2477 -5.133351 -578.6204 
699.1149 22.24091 -456.7732 
587.2321 -156.2086 -97.00942 
581.8598 -139.6019 -116.4718 
839.8193 -42.33783 422.754 
554.6146 -279.0499 -252.762 
588.0828 -43.11117 -519.6997 
665.308 -282.0787 -211.1321 
817.0983 -43.42873 -443.664 
833.5756 -120.1965 192.0914 
585.4661 -23.1226 -539.0717 
775.7136 -28.64947 -430.3061 
818.2227 -21.9176 -460.0233 
778.3292 -120.7253 -173.3588 
855.7063 -134.9087 152.1682 
604.3341 -198.9064 -115.641 
798.9963 -200.5789 -308.1656 
759.2619 -260.0039 -20.52057 
874.4669 -120.3211 154.5825 
687.1622 -260.8098 -96.93734 
622.1477 -82.40616 -602.5609 
796.4404 73.65849 -576.8475 
681.1971 -61.92575 -364.7695 
780.4846 -140.9897 -230.6259 
740.0106 -100.2566 -307.3297 
544.3578 -300.6391 -308.4749 
654.4119 -314.0302 -170.2587 
678.2658 17.37922 -440.4811 
812.9136 -85.97952 -406.243 
661.3915 54.37044 -538.1174 
584.8345 -82.22956 -481.4343 
759.1037 -41.53094 -418.8161 
673.5978 -294.9277 -131.3487 
589.37 -232.229 -21.91396 
800.637 -180.1583 -288.36 
814.3063 -64.17081 -427.587 
817.3917 -205.8224 -288.1099 
818.8181 -135.7204 -197.3393 
561.8847 -258.7198 -287.3036 
757.1947 -118.2803 -192.3539 
700.3824 -25.22293 -346.8268 
796.9062 -23.5132 -443.9939 
732.6566 -83.20796 -326.5654 
855.2071 -83.45724 400.205 
857.8547 -102.3999 192.726 
835.344 -102.2702 212.9005 
776.7513 78.5743 -597.4827 
661.0889 -42.7254 -603.2382 
605.3446 -179.1783 -94.78106 
679.0713 -81.09557 -384.0732 
615.331 -187.5844 -114.9216 
680.632 -279.2816 -115.0561 
583.9146 16.35757 -577.5624 
572.0294 -49.23143 -544.4694 
639.7374 42.86734 -536.1154 
823.1543 -244.963 -246.2892 
659.5544 43.20858 -517.7747 
888.2656 -103.6168 150.2378 
642.3031 -21.7388 -602.5491 
683.3608 -43.8845 -344.8606 
807.7374 -173.6816 -307.7671 
872.8467 -82.72262 423.3147 
582.7811 -327.2954 -251.5151 
603.1364 -115.6269 -39.50005 
603.8027 -62.28219 -602.3795 
791.8727 -68.84337 -410.6364 
838.5634 -83.24992 385.0516 
658.0108 -298.1356 -191.5861 
610.6309 -327.0956 -232.9582 
599.6407 -257.5059 -171.9272 
572.3483 -138.2669 -94.55701 
748.1495 -290.4539 -123.7494 
563.9229 -195.003 -77.71827 
726.2444 -61.6546 -326.4563 
563.3696 -319.4417 -268.516 
547.8252 -183.7639 -36.72154 
577.814 -223.4432 -37.70254 
743.7444 -279.4355 -134.077 
549.587 -313.475 -288.5848 
571.4805 -88.38181 -501.7959 
723.4065 -254.2819 -137.1002 
607.2021 13.03387 -520.7108 
682.0116 -329.0098 -355.8906 
748.7462 -327.9184 -340.3758 
593.916 -203.1194 -452.2839 
771.2971 -329.3265 -468.9786 
766.0871 -288.7558 -378.0827 
756.5213 -51.60617 -148.2779 
911.4952 -89.09436 41.6155 
791.7764 -51.55737 -106.8401 
836.3744 -160.0992 500.5108 
657.4214 -123.5637 -329.4689 
669.6979 -76.93434 -285.5161 
778.5098 -200.9575 -602.6526 
551.2341 -292.8693 -580.4761 
559.1566 -283.7023 -571.7357 
738.3724 -53.14553 -83.80823 
708.4905 -12.10301 -92.53822 
606.9306 -220.1235 -403.6295 
674.3163 -10.96933 -114.1206 
873.4583 -87.33753 78.86169 
727.2225 -19.96971 -21.0976 
648.4768 -370.2617 -593.6454 
614.2032 -223.1734 -418.5834 
637.304 -345.3573 -555.0308 
761.122 -6.843563 -37.01409 
872.7854 -178.5714 598.0585 
858.0932 -211.1959 577.7814 
879.879 -209.1785 572.3242 
576.6155 -287.5956 -551.5635 
778.9539 -299.5768 -349.6844 
849.3368 -46.23742 97.0067 
800.7074 -70.4154 -128.2491 
835.3526 -47.81262 77.3956 
757.6857 -181.4557 -602.6738 
644.3729 -103.6689 -326.667 
627.1744 -353.4032 -594.8218 
559.8315 -260.1414 -554.681 
585.1888 -318.606 -596.1667 
850.4772 -168.4276 514.7648 
762.3624 -58.80699 -98.605 
553.3453 -244.4285 -326.729 
739.3794 -159.881 -602.84 
698.0552 -15.26968 -78.39902 
615.9662 -304.0969 -499.3832 
896.976 -204.9544 595.556 
680.8831 -101.5285 -603.1818 
662.5131 -41.93717 -250.5415 
779.1244 0.06733064 -19.7833 
762.8102 -80.52072 -118.4848 
661.0007 -100.0096 -347.5567 
804.2964 -267.9218 -334.6891 
611.5587 -239.2285 -429.4361 
896.5053 -80.7468 95.92886 
795.0792 -279.8152 -346.2126 
641.9629 -357.6439 -575.6436 
854.6573 -181.941 539.3251 
544.4623 -280.0291 -598.1097 
730.9174 -5.711918 -134.5999 
895.4362 -69.41444 80.23928 
854.9299 -207.4256 558.2401 
627.1754 -314.9278 -482.1782 
719.2718 -141.7559 -602.9893 
681.0535 -324.2408 -422.5671 
624.1159 -145.0436 -346.0502 
624.8668 -156.0199 -332.1278 
796.4521 -219.4546 -602.7905 
839.8177 -173.5306 557.2875 
579.2963 -140.2607 -457.3599 
777.9623 -280.4623 -365.1885 
815.608 -83.17887 -132.7869 
720.2392 -336.3192 -326.1708 
816.2191 -240.0259 -603.0398 
611.0846 -293.4029 -481.8712 
813.5303 -262.0661 -347.0131 
853.5413 -82.78616 135.1093 
571.8352 -161.3487 -467.5923 
834.7028 -195.2776 540.4835 
596.0482 -182.1989 -438.6057 
778.9619 -63.5033 -110.9341 
850.1264 -62.41531 116.317 
990.7452 -27.0167 257.1333 
642.9557 -125.4917 -349.8658 
700.1185 -314.0524 -403.729 
722.7273 -5.497572 -154.3331 
618.5496 -240.1045 -403.7302 
738.7552 -324.023 -441.1877 
814.3802 -281.8252 -327.5009 
731.5266 -349.6797 -319.5137 
605.6485 -159.9845 -349.2001 
610.2278 -128.7262 -384.5971 
929.4719 -88.85428 52.40614 
741.8956 -26.8844 -36.98212 
623.7281 -122.0915 -364.4086 
587.9774 -235.9391 -358.4726 
700.9953 -121.5211 -603.1534 
605.3785 -335.1976 -596.2539 
588.4501 -160.9364 -443.4084 
892.9579 -182.1663 577.6014 
534.9149 -256.6561 -594.7319 
662.3198 -360.1736 -557.4923 
666.7738 -61.52779 -307.9053 
844.5275 -58.77933 140.5599 
800.4973 -88.90062 -146.9976 
730.2094 -334.6679 -341.1511 
565.549 -300.2217 -597.4418 
768.4071 -92.40886 662.0563 
458.5077 69.52179 702.3832 
824.3653 -133.2814 647.1422 
792.1607 -166.2654 656.2386 
807.6993 -169.7672 680.4246 
681.7269 -94.39753 744.3701 
445.5103 90.98975 710.6121 
766.5619 -104.871 666.9626 
674.4283 -113.3675 722.7082 
426.1318 79.2176 672.1237 
794.6586 -103.3618 636.055 
456.1897 80.47929 693.5381 
762.3178 -121.15 654.1705 
697.1744 -98.67997 728.0559 
761.7854 -140.3224 634.3164 
811.3392 -125.9115 636.6093 
714.9504 -95.66169 709.7861 
764.8298 -155.0617 612.9616 
789.1288 -149.4153 679.2539 
772.3771 -122.9097 675.1553 
465.1677 111.8265 751.9697 
819.4435 -175.5208 690.8224 
799.162 -121.551 614.9224 
779.2037 -161.5625 635.3282 
564.0612 -92.47733 144.8117 
843.1634 -14.67445 -491.8313 
475.4995 -250.0728 587.6915 
498.9952 -250.3753 565.8127 
825.2416 -34.06527 467.3572 
902.7781 -74.49728 -491.3937 
885.2491 -31.00671 -526.7839 
786.4363 -169.6091 83.96602 
691.8918 -212.3825 88.62463 
654.6792 -130.3487 237.8056 
791.7379 -74.66467 515.019 
785.7624 -248.6943 7.047896 
787.1857 6.421659 548.2556 
601.0675 23.15352 376.4872 
578.3767 -14.98661 409.1081 
583.7698 -132.742 202.1204 
842.9835 -35.66147 -473.9214 
846.2656 -253.7434 -241.3627 
804.4744 -69.82646 507.5525 
730.9487 68.41039 418.7736 
626.7738 -151.7268 222.9558 
881.2463 -37.05407 -513.8204 
553.476 -49.87123 430.1427 
775.5233 7.576687 550.3428 
810.8215 -56.88477 513.7968 
881.2885 -18.23847 -533.6426 
679.3495 45.54256 527.4518 
812.3681 -74.83324 493.4494 
861.5735 -35.31369 -493.0252 
859.2424 -211.4337 -64.98428 
637.0955 -89.41991 362.4168 
859.5021 -169.6123 -147.4792 
811.207 -157.8848 112.6553 
849.2176 -28.29524 -486.544 
881.1932 -54.60229 -492.2804 
512.3315 -90.96512 199.8792 
538.4839 -155.5788 153.0526 
675.4565 -233.2227 92.52697 
868.2289 -149.3298 -112.2738 
716.8923 69.72491 440.3025 
694.2255 -195.3433 113.8743 
854.1962 35.92717 -576.5248 
889.7674 -67.41074 -485.9863 
520.0886 -145.5607 156.3625 
573.4033 -134.7965 189.5274 
578.647 -86.35677 421.8122 
662.6191 -84.24541 341.0563 
590.7784 29.83409 306.7785 
680.6674 80.96465 398.0188 
929.5424 -43.88612 -577.0733 
811.4888 -140.7192 132.9139 
726.406 -195.7545 96.19255 
907.7671 -140.8801 -69.7014 
936.0823 -148.1025 -49.73499 
562.3365 -82.19258 439.2181 
607.819 -73.38526 320.4904 
596.5024 -69.88516 312.5277 
789.5776 -149.9821 122.871 
835.5536 -296.9303 -307.819 
898.4417 -40.99205 -537.6112 
830.82 -160.3902 -134.2418 
912.5224 -43.20674 -558.0089 
873.7495 -199.4799 -58.04681 
785.8809 -186.4252 59.0563 
914.6158 -82.26408 -602.4733 
589.1346 15.09186 370.6841 
569.8829 -36.3881 402.8251 
623.6382 55.18942 442.1668 
948.4489 -140.6376 -38.76984 
833.473 50.35192 -577.1924 
549.551 -105.003 215.5294 
560.7902 -61.57149 421.2458 
700.9026 75.86769 385.5139 
836.1965 -122.5515 -97.3544 
916.156 -21.41628 -571.4653 
802.2231 -153.0591 128.4242 
730.5974 -204.9725 76.06897 
603.7023 -100.0679 267.3972 
819.9012 -179.7765 19.20759 
895.991 -180.7643 -57.38284 
597.4072 39.77456 443.8563 
835.7828 -2.899951 -604.3976 
699.8837 51.1826 518.0328 
620.1072 -103.2019 289.8737 
641.7664 -180.9583 153.4913 
527.4078 -118.2774 206.5517 
794.1845 -198.7494 19.67196 
739.9551 54.51418 481.5609 
696.6956 86.57685 409.2484 
545.0479 -140.7073 172.6324 
896.2866 -202.1412 -75.21545 
820.4726 -24.0666 480.9425 
913.3201 -161.3213 -57.98571 
876.0358 18.92273 -575.9429 
854.6259 16.74219 -603.1611 
643.8157 -124.4836 250.4538 
759.6376 18.66044 538.9448 
841.0984 -141.9001 -154.1848 
622.309 -120.524 269.5508 
817.5735 -202.7608 0.760388 
912.9589 -121.4623 -19.23297 
936.0045 -127.3894 -33.90173 
877.1406 -78.4257 -473.5667 
930.901 -61.05229 -596.6862 
565.8461 -124.5078 174.868 
855.0026 -180.4734 -19.58536 
855.6375 -194.4574 -41.24686 
925.1304 -100.1787 -19.70015 
867.0956 27.9838 -593.1647 
686.9137 -224.5537 80.28989 
832.4155 -259.0522 -271.9656 
617.116 -70.5939 334.4378 
699.5759 -178.9382 134.8713 
722.5448 61.54097 462.7067 
618.3368 -86.10551 310.9231 
520.1791 -98.54005 186.6039 
838.0179 -178.7219 -39.63073 
663.1738 -180.9995 172.8811 
581.0685 -46.32309 387.0305 
548.5439 -123.8557 194.4258 
759.3511 0.9116641 561.2464 
680.1836 59.45731 500.8116 
588.2187 -3.398251 345.9226 
830.0049 -275.92 -246.8399 
832.1584 -102.2751 -115.9285 
914.7247 -105.656 -37.8327 
740.5263 -81.37823 576.9579 
664.6902 -198.4415 152.7651 
716.5999 -189.7479 82.06551 
756.2078 -246.2279 20.69287 
786.5813 -201.5582 38.63589 
821.4143 -128.2501 79.5618 
636.4183 63.94515 384.8677 
869.1716 -161.6521 -95.96563 
551.651 -30.14353 450.2877 
531.6446 -154.2207 168.2006 
877.5226 -176.8178 -79.10403 
563.0261 -22.37827 385.3187 
681.3792 -200.8278 135.146 
839.4156 42.66962 -556.122 
789.8803 -220.5657 38.39751 
738.5867 -61.4547 593.3937 
571.2186 -9.031779 370.7249 
623.8184 -136.4989 247.6441 
897.2998 0.8691072 -574.0005 
879.8638 1.663605 -555.1981 
457.4573 -91.43453 508.4167 
612.9818 -190.3594 483.8546 
633.7679 -111.2681 590.6354 
864.6595 -114.2558 -433.9533 
883.2333 -161.3254 -452.6094 
863.7189 -93.89865 -454.2136 
592.3676 -188.7802 584.4403 
475.4084 -131.9562 123.2312 
593.7993 -133.0903 468.5506 
805.5732 -132.422 397.4899 
470.3542 -50.6577 489.2741 
765.5092 44.26875 230.1987 
661.2364 -114.1766 596.6277 
755.625 50.73127 248.8776 
884.9038 -310.0719 -594.3681 
507.4967 -182.44 39.62302 
785.8082 3.715905 294.2747 
532.4744 -207.2602 538.8323 
557.7982 -231.6878 537.774 
849.3972 -224.879 -345.0861 
494.7133 -143.4778 90.20518 
575.5801 -109.7608 507.2564 
865.8803 -125.1035 -431.104 
487.1261 -177.7909 57.71175 
565.5364 -49.05723 117.6972 
670.4092 44.74107 131.4314 
546.6025 -115.9202 478.6855 
825.2482 -23.99574 198.0716 
502.9581 -108.8684 109.8578 
501.9623 -163.3704 97.41289 
504.8251 -77.36379 481.7209 
824.6954 -77.3537 177.4543 
622.2657 -180.3032 461.112 
830.736 -201.2896 -387.7141 
808.6887 9.866724 230.2175 
525.3856 -244.3291 575.7413 
552.7182 -186.8226 540.0148 
575.8401 -38.14524 131.7727 
567.9325 -115.0881 494.8149 
472.9519 15.88573 581.811 
485.5449 47.34049 600.3875 
579.2384 -214.4319 539.9804 
680.9071 49.80592 172.5957 
469.6335 -0.6995642 596.9326 
507.6472 -125.8172 135.8893 
528.2358 -116.6159 461.0583 
814.3904 -138.3192 385.0117 
488.3204 33.85639 579.3054 
827.8086 -185.1976 -358.2365 
820.3358 -104.3872 423.3819 
815.0742 -115.2042 438.7094 
493.6946 17.28651 556.7072 
789.2225 29.22506 269.3079 
608.5012 -162.1563 577.1796 
467.2478 -81.03371 518.4312 
595.0071 -79.0996 36.85579 
856.4844 -279.2338 -603.3647 
507.4211 -43.21037 520.3616 
543.1407 -102.9285 455.1791 
624.261 -142.2575 579.2563 
598.5082 -101.8116 557.4523 
486.0774 -23.65648 521.1382 
566.2573 -223.4006 557.9924 
455.4378 19.03061 601.2015 
836.136 -259.73 -603.3116 
584.5025 -63.68032 76.09492 
473.0457 -56.7561 494.7487 
798.2306 18.16427 250.1966 
624.1395 29.12543 98.4804 
739.0895 51.78267 192.3305 
808.788 -1.403712 243.2667 
896.5215 -279.8687 -556.7759 
638.6847 -137.2424 557.2343 
893.4591 -142.1857 -461.2432 
508.186 -143.0638 75.34195 
563.244 -60.74736 95.81978 
585.1924 -113.3397 514.9857 
857.2909 -323.199 -555.6309 
559.3268 -81.32995 77.54026 
842.6048 -141.4734 -397.8702 
813.7618 -41.86539 212.3861 
597.2768 -119.8854 538.0765 
798.9409 -118.0256 421.959 
617.7798 -18.31926 -0.7152365 
505.9849 20.80841 538.1035 
608.2707 -141.8667 597.1922 
489.6165 -1.39146 536.1572 
753.4969 -102.4226 402.4939 
580.955 -198.1099 595.6901 
608.6348 -15.76684 17.62696 
836.7886 -214.8315 -326.4923 
658.0271 68.51932 173.2358 
851.6101 -239.8011 -326.323 
778.6862 -156.9017 442.1653 
876.0111 -239.6137 -383.426 
660.4297 55.35118 115.8725 
700.0402 53.27146 153.8141 
650.1997 51.8339 135.449 
572.1495 -19.55536 133.9663 
487.3357 -61.59415 480.3898 
719.3165 -101.2628 365.5043 
603.5422 -198.1521 462.1055 
487.9398 -160.3692 76.0683 
526.7748 -111.0794 477.7419 
641.0126 -120.4063 577.6154 
720.009 55.94212 212.5522 
533.9885 -70.49408 137.309 
504.9755 -20.60952 495.8735 
546.8813 -78.69789 133.8035 
487.1543 -120.2376 116.2094 
778.2848 -140.7543 427.3568 
874.8808 -299.2457 -602.2999 
699.9528 -98.06049 305.062 
564.4713 -99.88799 518.9342 
760.3162 -121.8074 385.0136 
642.9305 40.51639 116.0877 
507.4635 41.45749 596.8558 
484.9829 -42.28698 498.2005 
756.8434 -145.7759 441.9337 
514.7013 -58.19731 467.502 
875.7798 -141.3381 -441.6701 
553.5434 -229.0018 579.661 
589.1057 -7.379332 20.25911 
858.8936 -140.3491 -420.3192 
586.4941 -163.8937 481.0526 
777.0414 -120.5541 404.2922 
777.2342 36.13573 251.1165 
505.7279 -3.110917 556.9788 
680.4005 44.15643 154.309 
849.2196 -160.4154 -407.8397 
575.9841 -24.22872 116.0534 
542.0989 -233.6189 595.8782 
487.6365 -82.1218 460.5845 
528.0844 -85.0437 116.0042 
795.4271 -106.0948 442.9239 
540.2625 -195.7197 556.0225 
459.1694 -249.8064 692.7908 
770.2926 -62.03382 649.2118 
711.5254 -6.396497 615.0497 
758.1878 -41.67643 617.5407 
384.6165 -174.4039 841.1967 
366.2978 -175.2164 862.0192 
685.8711 -65.8175 758.4581 
702.5756 16.7376 653.4263 
696.3937 -80.5359 745.5949 
725.0257 -43.86874 731.1378 
366.9415 -195.2467 840.9573 
724.7302 -62.21109 711.4493 
446.4718 -253.5974 711.1658 
754.9286 -62.74768 672.5663 
778.3752 -83.49159 672.0397 
398.521 -167.1735 832.5728 
737.4266 -59.71486 688.2966 
719.3389 -25.6405 748.6006 
757.3135 -79.79597 653.2363 
663.7922 -57.91903 763.2958 
468.9462 -200.9165 787.9644 
768.5201 -48.18875 635.0155 
433.376 -163.7711 792.118 
720.7581 -83.04601 691.8563 
393.5597 -201.9167 869.7065 
673.6469 -307.5872 -339.8279 
806.2871 -308.7173 -455.0556 
762.5123 -308.5088 -414.8536 
806.6171 -32.92947 -22.93191 
983.6665 0.8199874 279.4554 
612.172 -190.9201 -356.9604 
807.9541 -31.47215 -12.08989 
592.8427 -271.1821 -502.0331 
807.585 -309.5432 -463.1902 
709.5013 7.250041 -15.91371 
634.3412 -114.2041 -395.426 
592.8397 -239.2293 -469.6646 
736.6382 -72.43623 -163.0347 
904.6526 -75.97835 128.9866 
906.1647 -71.60896 115.3432 
904.425 -192.6739 566.7281 
730.3222 -15.74982 -95.36127 
771.0506 -35.54358 -84.52657 
822.8655 -75.91499 -82.32554 
652.1173 -172.6036 -329.6544 
821.9432 -286.5325 -417.258 
629.1926 -330.4702 -521.2573 
725.2708 -40.73459 -96.13224 
660.2369 -335.8885 -481.2976 
803.693 -287.1041 -397.3632 
798.119 -161.4027 -602.9388 
777.165 -15.0568 -64.1491 
719.2018 -240.1104 -601.887 
775.5201 -311.8233 -426.6839 
830.6625 -75.53426 55.37157 
758.3418 -122.7418 -603.4791 
732.7339 11.18239 -57.70264 
794.8871 -354.4011 -326.3492 
654.1253 -61.6627 -212.8216 
614.5971 -201.4307 -378.1483 
701.1318 -180.0706 -602.3589 
734.1182 -3.196336 -76.69762 
604.0754 -227.1953 -353.5471 
614.4984 -184.2267 -369.8624 
724.111 -59.69732 -153.884 
750.476 -35.51383 -65.00736 
701.4376 -4.66473 -38.40295 
821.9174 -61.29224 -56.0586 
739.0804 -64.73485 -134.7022 
778.0728 -301.0976 -403.7772 
621.6026 -86.96716 -191.7212 
681.6857 -336.1157 -462.0994 
800.4072 -22.44414 -38.41616 
639.4432 -177.8215 -340.8617 
811.2835 -43.38417 -38.02411 
873.2037 -87.18353 19.64404 
661.6072 -298.086 -601.9551 
642.993 -42.31781 -172.2899 
643.6118 -201.013 -327.6689 
602.5827 -279.8935 -603.1837 
637.3764 -96.27909 -418.6867 
658.8826 -99.3185 -399.8955 
859.7631 -76.59147 37.65421 
831.8898 -62.9135 38.72079 
836.3737 -162.4999 596.2057 
1001.885 3.238868 265.6974 
683.9884 -318.1534 -327.8996 
642.9529 -334.076 -502.1302 
595.9765 -95.6816 -455.1308 
893.6481 -87.41631 0.08628227 
605.821 -161.3859 -404.3887 
650.3882 -26.65189 -190.4287 
724.9359 -316.2248 -360.4543 
762.3138 -28.26613 -72.81239 
602.5942 -317.985 -557.7952 
642.0792 -318.7619 -602.3151 
701.2454 -21.99879 -134.7856 
700.3589 -331.4615 -443.5078 
724.7493 10.99401 -76.02521 
817.7276 -141.5676 -603.0208 
714.8886 1.257434 -57.93467 
682.0829 -20.28034 -153.4536 
597.3844 -141.1953 -422.0248 
681.1726 -200.7421 -602.1084 
854.5355 -63.09967 58.27789 
603.9045 -244.9669 -327.147 
739.0609 -299.9241 -369.6152 
700.6977 -319.8822 -348.1007 
794.1042 -313.1079 -445.3761 
789.4059 -338.8964 -337.8889 
591.6674 -257.5971 -480.7465 
656.3474 -81.62946 -230.9971 
650.5425 -85.60287 -208.8018 
622.902 -260.0528 -602.79 
777.939 -101.3315 -603.8467 
684.704 -0.1638926 -18.70673 
602.9396 -81.80541 -173.1331 
725.248 -23.27694 -115.2071 
661.9117 -16.40102 -176.1708 
846.2694 -170.2588 583.9293 
674.6572 10.04409 -37.49513 
720.3998 -302.193 -383.9241 
619.8583 -233.118 -341.9602 
815.3807 -300.028 -442.107 
738.465 -220.3767 -602.1865 
616.7082 -96.05291 -435.6454 
990.7867 12.86161 271.1121 
609.8287 -180.2832 -385.1816 
598.2481 -119.8783 -438.8738 
534.9813 -213.0272 -563.2451 
593.1765 -50.34475 -88.76939 
885.7963 -74.25372 168.5408 
672.0671 -90.41401 -275.5941 
713.8116 -12.61558 -224.7835 
678.098 -388.0743 -582.546 
905.0294 -55.77715 281.0471 
614.6442 -285.1437 -436.6102 
901.0545 -11.60365 251.2105 
731.8955 -88.57799 -287.5468 
682.9312 -370.3656 -562.648 
650.8326 -11.10597 -149.6331 
556.0952 -116.8214 -492.0974 
535.2263 -118.9038 -547.441 
544.9195 -102.1072 -537.2756 
687.0864 -30.12505 -287.4102 
672.9308 -98.06709 -361.3913 
630.1628 -30.84715 -71.36891 
553.688 -309.6363 -329.2102 
725.1329 -61.63692 -288.966 
727.5576 -77.47739 -305.6398 
596.6082 -32.12186 -49.6212 
876.6809 -81.75613 153.0654 
796.5405 -298.3101 -602.8516 
642.6578 -140.9772 -602.4873 
680.126 -338.9698 -600.9617 
739.4496 -364.4017 -555.0787 
537.7166 -226.175 -570.2278 
696.3928 -31.99424 -307.3241 
932.6184 -22.93756 235.6588 
832.302 -23.38215 172.631 
835.5966 -107.9888 407.6278 
822.4139 -231.4466 -366.5476 
661.4796 -161.4252 -602.4162 
660.3483 -4.064661 -133.91 
583.7833 -240.542 -603.2975 
836.5483 -62.7963 212.1071 
758.748 -83.06595 -192.1753 
550.6382 -141.5124 -499.1387 
778.3718 -278.2028 -602.523 
839.1495 -42.52132 154.1175 
835.3026 -117.8109 385.1729 
816.4078 -319.1188 -603.1007 
971.3783 -22.51746 266.8375 
855.3469 -81.55473 212.2251 
823.4945 -220.5622 -378.2839 
712.4976 -24.2136 -248.1254 
757.6962 -259.1412 -602.2217 
678.4745 -41.98544 -308.7997 
757.6206 -354.0866 -539.8212 
811.4828 -198.5911 -330.2914 
659.2643 -326.4725 -441.0763 
713.5738 -46.45301 -268.7964 
803.9457 -179.3682 -325.744 
584.4944 -259.4739 -346.266 
565.3536 -281.5985 -341.4995 
816.5109 -180.8357 -345.9686 
851.6649 -104.902 384.3842 
854.6515 -64.12901 191.9163 
606.9244 -259.5374 -441.8193 
641.6196 -322.5066 -461.1552 
602.1393 -45.73606 -76.21623 
700.1716 -356.7426 -600.6022 
567.1909 -307.6982 -357.5263 
564.0759 -220.2219 -603.1989 
525.1794 -180.8017 -597.9597 
705.5566 -36.94062 -288.023 
759.7805 -60.53619 -173.6754 
549.0582 -239.127 -559.4162 
719.9528 -378.3585 -596.5296 
626.3652 -297.3221 -424.0956 
875.2681 -62.55383 173.0998 
914.2472 -41.33327 237.4076 
624.0413 -121.8398 -602.4815 
549.2095 -121.009 -519.8051 
561.1022 -261.9152 -333.1078 
544.9285 -201.692 -602.5157 
891.1566 -64.26467 153.0089 
835.0082 -80.54391 189.9037 
568.2739 -103.1389 -482.0881 
581.8482 -318.4702 -367.5833 
605.9476 -280.8571 -461.2579 
597.2049 -90.46642 -36.91492 
700.9772 -381.1583 -577.7683 
546.8909 -298.9293 -345.1834 
758.6941 -344.5146 -519.152 
950.465 -37.87603 263.3911 
933.7513 -50.40195 249.7948 
621.2168 -41.80178 -58.76519 
603.0427 -100.8344 -602.4633 
855.6666 -117.6762 402.6084 
778.8629 -345.6442 -535.2066 
744.7293 -98.08804 -344.4193 
532.8693 -239.0855 -580.9992 
730.5347 -131.1651 561.5632 
800.7763 -92.0091 471.9981 
806.2272 -151.5158 497.2408 
749.3403 -149.9954 473.3697 
709.2466 -110.915 584.691 
923.5689 -210.5667 -547.5142 
591.8546 47.70997 237.5997 
494.2079 -110.4492 181.1712 
622.5551 -93.72623 354.9665 
538.7776 -117.7515 451.389 
808.6546 -150.4874 505.0957 
596.894 -192.0337 429.8813 
593.2219 -109.8925 391.8574 
768.2869 27.00407 66.6526 
717.1165 46.56003 103.3367 
574.5267 26.1018 272.6293 
809.281 -189.9049 532.7499 
707.9479 47.35087 118.4794 
572.275 29.57665 228.7422 
861.9161 -256.8866 -341.2002 
609.1675 -188.4824 439.054 
569.359 -110.5529 411.8802 
662.6472 59.77429 153.0047 
805.588 -191.4193 545.5889 
694.8064 42.99459 131.6819 
793.0173 -187.4713 557.2039 
610.1536 -103.4316 369.1728 
800.3167 -1.920467 37.19566 
734.6621 -17.02695 -2.772842 
781.9269 -134.0542 461.2012 
748.2162 -93.52161 547.1381 
910.8776 -220.266 -519.3996 
522.2922 -108.1644 449.7653 
588.6582 -165.0298 443.1748 
944.1104 -161.2946 -578.5307 
561.8843 -40.58982 152.7952 
902.2429 -162.5542 -472.5893 
583.9577 -116.6379 403.2934 
758.4993 -101.825 518.6868 
815.5278 -99.95713 459.6732 
545.4491 -63.64803 153.9133 
741.706 -139.229 576.0223 
874.1981 -180.328 -602.9122 
835.2168 -282.3243 -347.4635 
893.3629 -200.6912 -603.0538 
855.0068 -279.2999 -327.3134 
776.6393 -124.3398 519.158 
680.3625 35.2445 115.4048 
684.1189 25.04922 90.68605 
814.0448 -23.5085 77.46159 
776.1811 -95.88528 499.5267 
538.2754 -82.23348 173.5628 
796.9318 -142.2248 519.8265 
909.0148 -199.8544 -500.1607 
763.9779 -116.5951 499.7581 
508.0547 -133.8679 187.3186 
583.0515 36.85836 250.409 
562.3361 -2.546707 271.037 
819.6319 -42.93704 96.80017 
466.9791 -140.4514 154.198 
697.5645 -115.2213 597.3774 
932.8223 -160.3526 -601.9408 
635.4394 45.62852 147.055 
910.8208 -239.587 -538.3416 
755.3071 3.940656 -1.505188 
595.3171 44.07798 193.0721 
550.36 -23.57609 191.8513 
619.3702 -175.5163 425.8802 
487.2965 -126.0353 154.127 
791.9058 12.91034 58.71444 
563.4906 -20.79897 172.7914 
575.3629 0.544813 295.9877 
526.3543 -62.65253 173.0692 
907.2018 -180.7988 -481.8007 
774.8695 8.362949 5.256023 
644.0152 54.37821 173.6514 
680.3244 -123.6503 576.797 
757.9895 12.03298 19.88443 
914.6647 -141.4353 -602.3463 
856.4103 -238.9796 -603.2714 
551.1371 -4.188943 248.764 
739.6729 31.42622 96.38438 
514.6071 -108.7864 155.7288 
623.3094 53.99274 192.6288 
872.6742 -258.5995 -365.9746 
779.4898 -177.8737 577.4865 
509.1763 -117.1394 172.0258 
549.7386 -100.5483 427.1168 
692.492 23.03809 75.65472 
761.6807 -155.1366 462.9705 
660.5345 -97.42455 304.756 
815.9609 -196.9138 557.8487 
571.7448 13.84235 282.46 
777.2272 -166.7911 480.8853 
819.6612 -154.6408 517.8741 
525.2723 -82.03513 153.7617 
933.6085 -121.6698 -556.7687 
715.6973 -125.3648 539.049 
721.193 36.31297 76.04794 
681.8882 -132.5597 563.6249 
544.3288 -43.08633 211.9137 
835.5748 -219.913 -603.0941 
935.8696 -102.5381 -575.3241 
604.6313 54.29415 212.2263 
630.9917 -112.6495 -299.1028 
632.6335 -210.5897 -240.3429 
748.8577 -308.7917 -260.4038 
825.6536 -170.0433 -144.802 
651.3911 -131.4543 -298.8263 
825.7023 -14.00301 -472.502 
846.9556 -51.65767 467.0792 
689.9091 -335.5546 -316.226 
800.6016 63.68538 -570.1967 
765.2616 -333.5172 -234.5488 
694.4154 -268.5843 -203.5335 
962.5263 -128.7417 40.21993 
616.0372 -211.1486 -178.9262 
796.5822 -231.7734 -63.04348 
633.751 -130.3192 -255.5972 
963.5507 -146.4348 23.74044 
787.0635 -234.4261 -43.79086 
711.2503 -267.3833 -183.6247 
946.2114 -143.0429 6.884213 
798.7629 -208.6564 -14.09217 
758.9808 -317.1722 -250.8977 
842.2869 -135.4667 118.5306 
712.8148 -331.9844 -276.8248 
632.2948 -131.7139 -243.8716 
595.1979 -247.6728 -173.9337 
654.231 3.785354 -454.9504 
842.9785 -172.643 -6.419333 
826.6402 -26.96614 454.469 
797.301 -283.0047 -249.6322 
740.5377 39.04656 -500.018 
664.9634 -83.08199 -379.4473 
776.7115 -329.4711 -219.9795 
680.8616 62.10217 -537.836 
670.27 -51.11196 -341.2186 
669.2916 -303.7534 -135.1684 
813.7323 -239.6458 -76.6656 
621.4696 -163.1752 -269.8566 
775.09 -97.12369 -138.8052 
907.9688 -145.744 38.60994 
607.0909 -178.0065 -230.7198 
719.4814 48.62516 -506.0042 
819.101 -280.59 -267.7268 
796.9578 -3.469978 -605.1102 
581.6665 -244.7751 -308.1791 
817.1318 -219.7173 -56.95093 
636.6757 -255.6898 -112.5091 
750.1661 -247.4588 -16.8967 
699.9121 -22.4522 -604.5574 
745.1508 -302.2307 -213.9044 
642.313 -282.9495 -95.23086 
733.3081 -312.5462 -229.9841 
666.2132 -66.96584 -364.7428 
615.563 -189.3575 -211.4083 
757.1644 35.8448 -604.7461 
660.7828 -102.4843 -251.6385 
777.4501 55.44024 -602.9329 
880.7758 -123.9095 136.645 
947.595 -105.6763 41.37291 
895.129 -121.4596 115.6085 
950.8702 -121.3763 57.72874 
701.0892 -242.8782 -115.5487 
816.467 15.92859 -604.1685 
914.0945 -114.0068 18.96194 
816.0676 -307.1161 -289.0791 
930.4555 -110.789 18.56069 
711.3795 -297.9838 -225.5166 
699.9619 -281.7274 -230.1306 
699.6561 56.70928 -518.9272 
641.4724 -103.259 -269.2816 
724.8594 -277.3871 -174.825 
834.8702 -43.75348 482.347 
874.3309 -138.4969 76.3252 
916.188 -103.0627 0.9063213 
755.3986 -103.3923 -153.3454 
892.9456 -101.4158 135.2579 
619.2165 -259.554 -133.3109 
739.2056 -62.25199 -604.6116 
607.0013 -163.2589 -248.62 
816.5729 -180.8695 -19.77524 
857.9041 -129.1091 80.95752 
656.46 -157.5311 -307.137 
913.2225 -159.0091 57.45334 
650.8776 -10.41746 -450.1431 
602.3873 -261.1688 -153.4772 
932.3271 -161.127 36.90275 
794.6575 -297.3268 -307.506 
590.2212 -86.71253 -467.9102 
680.3885 -272.0417 -212.8429 
855.1983 -137.9644 134.6604 
935.2248 -118.9448 0.07212465 
658.4216 -316.3053 -153.243 
951.6581 -159.4741 18.16705 
719.9014 33.42078 -480.8191 
655.0295 -144.2692 -289.3878 
646.889 -326.76 -135.9163 
702.5406 -351.9581 -303.5531 
681.1686 -42.1245 -603.8083 
602.8929 -212.6423 -192.25 
787.2664 -223.2885 -25.98855 
600.1082 -280.6612 -133.0761 
642.6643 -164.9628 -287.7226 
867.7211 -96.31995 112.6296 
780.6968 -318.4871 -269.679 
646.1417 12.80318 -466.7474 
929.7601 -139.9119 56.40273 
817.0993 54.20042 -557.3312 
777.5186 -114.2627 -159.647 
834.3492 -122.1965 96.54663 
893.895 -144.8171 97.41695 
785.7823 -302.0599 -250.1716 
719.77 -81.15259 -604.0269 
898.4378 -155.8355 77.68128 
627.6727 -197.6865 -229.8575 
821.3398 -256.9325 -254.5574 
718.2668 -318.0453 -211.7551 
663.8242 14.21532 -443.4197 
565.8696 -246.4937 -292.9026 
627.7769 -320.0887 -119.1748 
816.8309 -198.6053 -37.54753 
566.1631 -228.0196 -313.9465 
714.7048 -247.6056 -132.9751 
626.6171 -104.1959 -287.247 
701.922 -339.679 -288.3994 
861.8806 -92.66223 104.6652 
553.877 -231.3875 -545.5193 
554.7664 -191.8548 -508.9849 
593.3189 -32.44201 -50.48454 
536.8373 -94.21084 -548.9379 
632.4504 -32.3553 -89.56097 
613.9485 -71.46282 -127.9938 
601.296 -70.28985 -148.7547 
921.2211 7.810207 237.5082 
633.114 -61.25526 -121.2637 
664.9966 -330.0873 -447.432 
669.7101 -13.52481 -139.7726 
557.9302 -204.719 -513.1874 
962.0374 31.93432 237.45 
860.3832 -43.31831 274.5961 
879.8688 -42.31685 256.2967 
889.3008 -73.88029 275.5532 
582.4516 -241.0038 -499.4904 
832.6169 -78.29192 246.1694 
955.4114 1.709046 282.2985 
553.7891 -212.0544 -526.4879 
600.1681 -261.347 -352.4062 
816.1525 -338.2733 -602.8564 
934.1515 -2.545604 232.7561 
836.3917 -103.4022 348.6667 
827.8245 -11.34546 174.2114 
716.8462 -42.3843 -212.0313 
602.3638 -318.245 -366.8576 
798.2054 -370.839 -580.3563 
861.4669 -31.19515 290.7014 
588.3118 -81.90692 -39.64986 
670.2479 -310.751 -354.5516 
604.1045 -240.2182 -603.0064 
544.848 -139.9728 -602.8625 
742.2668 -346.6611 -515.3052 
829.7446 -29.88022 266.7005 
852.5754 -117.8726 349.6139 
632.0949 -48.54247 -110.7714 
586.2974 -63.94912 -18.23784 
634.9651 -43.43083 -134.2425 
583.3536 -101.3811 -602.5435 
523.0121 -160.2833 -597.8638 
849.5474 -78.15947 224.7277 
701.7122 -24.34814 -172.3243 
835.9549 -122.4953 365.4458 
951.2773 11.50263 270.4226 
599.0044 -50.43596 -92.48197 
810.0433 -161.3702 -347.8348 
700.4485 -342.9416 -480.7158 
815.5153 -140.3141 -326.9839 
757.8876 -363.3973 -557.2659 
738.6884 -260.0622 -601.9652 
570.8394 -218.3321 -502.8138 
681.3201 -23.64138 -192.8322 
953.0098 30.11703 242.6201 
622.6953 -82.51115 -153.5929 
972.5856 -3.128323 271.0313 
528.0755 -121.8223 -557.7917 
715.8062 -21.04077 -230.8385 
797.2335 -319.7366 -481.1627 
813.6306 -314.2515 -500.9665 
622.2448 -319.0082 -377.087 
778.5977 -366.8003 -570.8584 
893.8781 -22.55596 249.9352 
580.5039 -219.1913 -481.5338 
623.4703 -219.6169 -602.5321 
850.8657 -58.85543 246.8823 
700.2776 -300.0575 -601.418 
873.3893 -63.61492 265.2788 
778.0116 -372.6057 -595.1539 
816.5503 -107.5925 -364.2709 
933.6361 11.74582 248.3573 
680.9127 -319.5992 -601.3221 
739.1736 -355.9702 -538.7684 
912.3658 -1.492339 250.5517 
779.2214 -103.3762 -327.9001 
598.2982 -82.39208 -135.4287 
723.1067 -62.59615 -191.8053 
972.9976 17.1706 287.856 
739.941 -68.84888 -172.4032 
660.8024 -181.087 -602.2682 
646.0416 -22.99005 -154.4874 
642.951 -199.4115 -602.2697 
875.5314 -82.19801 289.0449 
720.5047 -279.2399 -601.6708 
648.9865 16.85729 -37.63005 
801.3926 -96.87108 -379.7377 
666.8637 21.99181 -19.59679 
700.1565 -350.1141 -503.5862 
650.7716 -328.8002 -468.8712 
640.6325 -305.3931 -345.6593 
832.3448 -58.13203 227.2332 
565.0986 -121.0622 -602.7776 
679.1534 -345.7966 -497.5169 
842.1292 -48.0367 292.7628 
756.6513 -96.63338 -345.7577 
896.798 -62.49522 289.5199 
520.6419 -101.9549 -572.2853 
736.4655 -73.05896 -192.5927 
662.2612 -299.9215 -326.4776 
795.6072 -358.7772 -601.7834 
819.3708 -305.3151 -480.0804 
639.7304 -0.3971899 -20.33231 
511.2203 -82.07664 -579.9688 
805.697 -163.6711 -328.1732 
822.798 -118.1728 -382.9507 
851.9152 -107.1348 366.7027 
618.3269 -296.0309 -371.9345 
719.8271 -351.8764 -519.2589 
591.1749 -49.07372 -76.72552 
419.7395 -174.879 856.4138 
497.5115 -171.9939 779.2473 
749.9827 -12.71918 703.6708 
498.0505 -191.0835 760.1921 
480.7005 -194.8704 780.6108 
665.6897 -23.99777 779.5379 
367.7166 -233.5515 858.2349 
377.8228 -228.479 855.2777 
706.3472 -20.27524 753.3173 
694.0305 29.23796 654.8313 
418.7926 -186.2181 854.834 
461.5931 -215.1606 782.0195 
712.8846 7.086578 661.4313 
459.1875 -172.9389 820.0137 
454.0972 -227.0261 773.6895 
442.4103 -197.1245 823.5418 
493.0941 -185.7735 774.85 
727.393 -44.32379 714.0441 
461.7941 -195.2489 803.3514 
386.926 -215.937 863.4987 
719.1926 -3.490838 673.3794 
763.1086 -62.15494 616.6016 
772.898 -91.12012 617.95 
697.3936 13.61908 636.8046 
681.1312 19.00896 616.7744 
386.0927 -232.9155 841.4777 
739.2515 -22.68635 709.0089 
426.2823 -159.1919 805.9547 
768.8393 -46.22025 650.87 
375.4901 -179.3159 890.7048 
648.4927 -23.79057 765.7693 
762.3398 -84.83797 634.731 
718.2741 -62.65405 731.004 
769.7609 -63.68273 638.491 
424.5454 -198.1759 841.4479 
409.149 -159.6364 827.6125 
760.2668 -42.62474 673.8836 
740.0463 -44.62981 697.5304 
660.7921 -43.24298 770.9874 
708.0068 2.948847 618.6512 
441.5634 -231.649 782.0233 
444.5493 -251.7354 725.692 
365.5508 -198.2253 897.4135 
456.103 -188.5294 815.3796 
405.7206 -196.6683 861.6317 
429.781 -145.9797 827.1663 
681.5915 37.12196 674.4208 
797.8486 -80.63033 673.6436 
759.7779 -28.77572 655.6938 
385.4604 -197.692 880.412 
633.9243 -188.7602 -276.3001 
632.2781 -131.7677 -176.6235 
612.3187 -113.1204 -206.6885 
675.8798 -288.3535 -282.5807 
730.8712 -227.8884 -54.15919 
688.4867 -290.951 -277.36 
706.6923 -226.6933 -17.37701 
629.9203 -89.79834 -430.1717 
649.6259 -310.3478 -61.04806 
724.4631 -318.2221 -289.6871 
856.1302 -154.5221 37.13242 
880.3243 -96.10608 37.72016 
629.3712 -93.92747 -210.5802 
634.5061 -76.44081 -434.8455 
776.049 47.88121 -527.1624 
699.5548 -320.2587 -268.8485 
804.9495 -266.8509 -191.4866 
741.5702 64.49936 -550.7855 
918.1473 -95.26415 79.12221 
805.3896 -277.8437 -175.1763 
816.9303 -62.85154 -604.2476 
750.8668 -310.708 -171.2919 
738.3118 15.95087 -605.7208 
780.899 -312.9089 -196.9636 
590.1965 -242.7591 -231.0949 
820.2911 -227.2426 -130.8741 
622.35 -162.5906 -192.3716 
812.186 -255.2785 -174.3866 
822.2372 -95.06434 -24.86725 
668.8078 -25.70553 -409.9214 
728.6966 -307.0556 -299.8685 
893.3639 -163.9159 1.817013 
892.3835 -94.69798 56.60326 
640.9106 -96.37766 -193.7467 
649.2609 -302.6804 -76.81578 
733.1253 -317.3632 -311.5077 
777.5669 18.05731 -480.0293 
758.7178 -339.9055 -307.4171 
737.131 -240.8563 -77.10659 
680.0331 36.04539 -602.9171 
932.8423 -121.5276 76.11153 
637.2875 -329.8529 -117.0633 
634.6724 -203.2785 -249.6022 
650.6531 -280.6468 -20.61042 
933.9668 -172.9195 16.41647 
591.9709 -224.4108 -206.3484 
755.9056 -298.6868 -192.2543 
660.3966 -260.3884 -18.69271 
834.5308 -99.1871 -1.2034 
778.7343 -356.461 -307.2077 
640.006 -141.7804 -230.8909 
740.0432 -300.7535 -287.9567 
603.0974 -234.7293 -248.9954 
875.1373 -159.9042 19.68246 
782.4632 -295.2635 -175.9065 
791.2369 -298.1046 -230.6921 
817.2217 -242.0064 -153.2032 
655.9591 -276.8849 -39.83466 
663.2435 -301.8596 -57.53043 
639.8286 -160.1409 -212.2415 
622.8575 -332.0951 -135.4938 
836.0278 -145.3437 37.73137 
700.5875 56.52164 -602.8013 
704.3508 -298.8793 -250.057 
605.4037 -154.4977 -176.1061 
606.5862 -331.4291 -155.2792 
700.6268 -239.4271 -37.67588 
627.1691 -177.1803 -285.912 
818.0099 21.33087 -512.8093 
622.6876 -219.9146 -250.8129 
757.8704 -42.60983 -605.1306 
855.7452 -144.0999 58.27711 
644.054 -219.9033 -307.5897 
620.9998 -121.7877 -230.6055 
797.2491 -82.06006 -604.1017 
610.6961 -99.82923 -230.263 
659.9036 -314.6305 -77.57317 
623.4987 -42.90577 -460.6003 
720.078 -3.056165 -605.3969 
796.1269 -317.6329 -210.6982 
761.3074 -354.535 -286.7191 
759.073 56.5303 -539.0535 
608.6702 -228.1639 -267.0613 
623.7162 -234.6452 -269.1346 
777.2372 -339.4048 -288.4825 
894.2726 -148.5473 24.04627 
912.835 -121.1172 96.58852 
759.8103 41.52558 -515.7249 
661.3947 -42.35131 -423.6921 
637.0096 -234.8688 -289.6441 
925.7841 -109.329 90.70566 
718.2301 -228.7121 -71.79025 
778.2808 -22.91323 -605.3877 
538.4018 -71.92725 240.4247 
730.1716 65.8674 292.1587 
786.6071 -132.2057 541.811 
903.121 -91.65959 -9.946445 
748.9023 -151.0857 567.3297 
764.6237 -93.91354 595.9965 
729.1036 3.990375 33.0374 
810.7898 -7.383997 135.5895 
847.6551 -289.3876 -467.2018 
573.2065 -59.90404 284.7717 
575.3648 -68.6189 274.928 
823.746 -57.66126 34.04081 
728.9675 19.1733 60.31147 
686.5176 1.377849 0.6969736 
611.9297 -142.6698 407.2074 
810.3471 -27.89506 2.69294 
805.1761 -14.93822 15.84163 
771.8557 -106.8903 578.8474 
614.5873 64.23257 272.6827 
724.8846 27.54903 3.649031 
945.9241 -179.8248 -595.4081 
718.0569 69.80978 269.0251 
737.1717 -144.3112 500.0747 
573.8275 -83.11034 267.9651 
510.6822 -99.95831 225.9851 
836.2534 -280.3715 -422.7184 
678.3527 -111.126 526.4025 
529.762 -64.192 246.0839 
707.2928 11.13182 2.848781 
930.3747 -142.9527 -537.9591 
803.5497 -134.1025 596.0405 
562.6866 -216.0728 444.6932 
810.2011 -145.5568 580.1359 
912.7147 -219.1157 -602.7475 
588.3084 34.01939 173.303 
566.0757 14.92318 212.9259 
701.6937 -115.4072 518.8343 
886.7542 -254.8414 -463.7355 
815.1266 -173.4685 465.9357 
639.0726 63.58144 247.5651 
923.9842 -159.4838 -522.4088 
626.3662 -136.9701 392.3476 
746.5542 -153.3668 518.004 
835.9257 -141.4418 -602.916 
907.5981 -105.0851 -483.1404 
642.0085 -122.2319 384.6726 
758.3422 39.18779 115.6225 
717.0965 -126.1739 462.883 
603.5911 54.88855 288.7336 
893.3713 -121.1695 -602.5725 
757.9227 -163.7832 538.7941 
917.2769 -120.6166 -500.6656 
562.8439 -2.135853 190.3694 
831.2458 -292.0089 -445.1952 
855.9705 -260.683 -421.3085 
704.7128 30.32545 58.17696 
781.1216 -173.5492 502.0709 
901.7353 -224.5669 -497.0582 
837.988 -258.7868 -402.8461 
647.7006 -141.9426 441.9627 
797.3884 -173.3302 481.6358 
736.6362 14.64175 38.61331 
621.3794 -107.8984 423.3492 
612.4258 -111.0091 444.0211 
870.6429 -274.7278 -463.7453 
683.2673 70.10971 234.2278 
826.9623 -70.30912 -60.7105 
545.785 -202.125 442.3092 
700.308 71.47958 250.6228 
634.967 -105.8705 400.2082 
550.4778 -24.26674 264.2106 
695.5731 4.033166 19.0765 
822.8356 -153.5849 593.7848 
793.3828 17.22204 134.657 
618.2078 -121.4872 443.095 
854.5343 -160.7785 -602.8044 
895.8741 -239.217 -481.0639 
677.557 12.96587 18.48725 
602.7769 -117.2837 423.2277 
938.5175 -181.6415 -570.3658 
803.3428 -0.1487523 114.0666 
525.97 -83.00196 234.1359 
659.4541 -118.8835 404.452 
622.5957 -158.5759 406.7318 
665.8319 -106.7116 383.9062 
680.3546 -120.2926 499.6274 
873.7962 -259.439 -442.9422 
784.8212 -114.4743 595.2526 
637.1042 -156.9449 423.7505 
932.6422 -239.0198 -596.7776 
814.9075 -43.50527 18.14424 
577.7698 20.08992 191.2955 
729.5573 27.09171 18.33385 
831.327 -84.1826 -76.33778 
777.9258 33.99944 134.9016 
725.5603 -134.6907 521.3631 
930.9028 -200.4507 -557.1378 
873.9541 -100.6532 -602.9102 
782.2447 23.66403 75.71668 
584.3387 -78.17934 286.478 
547.0367 -75.15705 241.664 
823.1531 -73.8018 56.50073 
902.3853 -53.05152 -529.7597 
696.8754 85.7048 414.2834 
945.6954 -128.7855 -35.29026 
573.8032 -77.72209 392.9506 
774.4147 -230.394 48.88451 
785.0267 -150.5451 122.8366 
905.7606 -123.113 -69.58476 
862.7609 25.89645 -568.945 
867.0354 -193.1975 -45.26479 
820.4994 -70.28704 469.3169 
515.4555 -68.63811 163.1459 
766.1097 -90.86363 508.2454 
633.0561 65.00107 450.1741 
536.6483 -97.69322 159.5777 
578.5359 -15.62068 424.1853 
636.1857 -132.5824 245.1679 
762.6972 -226.658 61.87661 
583.0948 -153.3683 166.8886 
943.1904 -144.3757 -48.47448 
575.9758 -40.43934 436.8143 
737.9211 -47.51674 600.5768 
611.842 60.06306 399.0301 
779.1049 -160.8875 135.5428 
662.7083 -114.2222 282.205 
787.2144 -205.4114 27.79122 
917.2448 -133.579 -26.93949 
793.8033 -168.371 82.1532 
866.5559 27.86966 -580.9022 
601.9196 -105.8714 251.6916 
683.2458 64.10844 486.1145 
847.134 -258.66 -314.3501 
736.9131 51.76321 497.8087 
513.5877 -113.2052 450.7593 
650.1562 70.56872 456.8226 
926.2151 -83.79952 -558.1282 
673.8492 -212.4524 129.6187 
552.5161 -128.6266 178.5356 
737.9462 -196.872 133.9624 
583.671 -124.7119 211.7345 
795.9872 -91.35136 470.82 
862.2353 -74.97974 -471.7303 
554.3414 -56.84726 428.033 
505.2954 -251.7882 577.7668 
854.9426 34.61112 -596.9773 
659.8412 67.75299 477.2586 
790.0715 -220.3051 19.78704 
894.9464 -2.27858 -600.159 
847.429 -152.6714 -103.91 
681.8713 82.82292 423.5031 
566.5353 -66.06565 406.3408 
652.9729 -111.1871 276.0602 
817.051 -211.1972 -8.126588 
573.1956 -11.50283 306.7046 
603.1691 -79.26946 346.3282 
757.1576 -7.910911 570.0117 
735.2756 69.23814 404.2086 
540.7813 -136.5714 190.3896 
918.8149 -61.07655 -556.7812 
581.6589 -2.237477 326.7101 
568.7193 -120.9029 191.3747 
781.0856 -229.1223 46.7144 
567.569 -44.09365 426.0804 
594.5102 23.37539 446.5079 
835.8397 -120.6796 -153.8141 
739.0396 39.61697 519.9092 
932.9836 -159.1158 -18.21692 
760.2565 26.9316 530.5475 
836.0602 -184.1449 -57.58825 
698.4697 -198.9189 96.01358 
719.556 -23.16261 595.7971 
665.4782 -174.8887 190.0602 
839.028 -194.7826 -77.73917 
487.4032 -252.0993 593.9066 
662.1522 -84.24869 326.5163 
835.7569 -160.1036 -116.5297 
660.539 -141.2566 232.7638 
564.3333 -99.28717 210.6554 
583.9517 -85.44309 403.6511 
814.7471 -161.6305 95.25052 
700.1362 75.16471 442.5523 
